# .PCD v0.7 - Point Cloud Data file format
VERSION 0.7
FIELDS x y z normal_x normal_y normal_z s t
SIZE 4 4 4 4 4 4 4 4
TYPE F F F F F F F F
COUNT 1 1 1 1 1 1 1 1
WIDTH 504
HEIGHT 1
VIEWPOINT 0 0 0 1 0 0 0
POINTS 504
DATA ascii
0.025652947 0.025855966 -0.030431854 0.090476751 0.028021848 -0.9003126 0.49791223 0.10295922
0.030771459 0.026297322 -0.030955244 0.15043427 -0.067168668 -0.92863536 0.50266141 0.05134375
-0.022770051 0.031363856 -0.029818455 -0.10771644 0.47115034 -0.86941409 0.48658204 0.22799575
-0.014800735 0.028874908 -0.030409303 -0.061611075 0.3116281 -0.92462528 0.48602158 0.1995872
-0.0044775321 0.032789726 -0.032022662 -0.039089255 0.27961743 -0.92297524 0.48362964 0.16626665
0.0028397334 0.033981111 -0.030878808 0.054243054 0.31797674 -0.91139966 0.48303083 0.14149322
0.014949553 0.031603523 -0.031035157 0.081353873 0.42031971 -0.8949672 0.48446015 0.10379558
0.025693014 0.031969052 -0.031885754 0.074490637 0.60890669 -0.76998317 0.48439711 0.13980144
-0.032745816 -0.041579656 -0.021821788 -0.32788816 -0.64781779 -0.68171549 0.72623962 0.25874308
-0.023448667 -0.042507187 -0.022177126 -0.03782586 -0.14921768 -0.12725975 0.52067989 0.34230575
-0.01385656 -0.044031214 -0.022953575 -0.02228027 -0.17501864 -0.16180734 0.49261448 0.30694416
-0.0066640498 -0.041594695 -0.023605589 -0.006334634 -0.10523805 -0.11324239 0.48758745 0.23841403
0.0062020873 -0.042459909 -0.023955682 0.00042831106 -0.040929463 -0.03741594 0.49571538 0.26066852
0.015654041 -0.042743608 -0.022085126 0.0038890634 -0.094285116 -0.097835064 0.44686285 0.14902203
0.023062246 -0.041123085 -0.023370156 0.058465786 -0.24513833 -0.24155708 0.47130275 0.17181073
0.032369655 -0.041272242 -0.021296991 0.29480875 -0.5679599 -0.63837433 0.63788825 0.13015716
-0.041228913 -0.032478616 -0.021906419 -0.69018298 -0.23387162 -0.68182927 0.63140851 0.34372398
-0.033025518 -0.033766158 -0.022121623 -0.0051256157 0.024789423 0.033090357 0.40108442 0.29929769
-0.026482238 -0.03475913 -0.027180331 0.027170602 0.17218818 0.34904948 0.29311857 0.2829645
-0.015525798 -0.037538692 -0.024399146 -0.0010262093 -0.0059654545 0.19591947 0.35701081 0.24236059
-0.0051898719 -0.035047486 -0.026766434 0.0047733155 0.054491062 0.34112871 0.30886361 0.2159377
0.0052427636 -0.03620575 -0.026456699 0.0030358776 0.082455084 0.50697619 0.26209569 0.18743446
0.01459055 -0.034720574 -0.027685082 0.0051251575 0.06822478 0.48951223 0.26993632 0.15441447
0.025726432 -0.034073014 -0.024418652 -0.036447499 0.1727837 0.46677542 0.26825127 0.11947948
0.03457259 -0.035996929 -0.024305969 -0.046227019 0.054301038 0.10141968 0.37459487 0.087921582
0.040728997 -0.034056097 -0.020554002 0.68055266 -0.25490925 -0.68454343 0.49771753 0.31877759
-0.041444425 -0.025735188 -0.021844586 -0.27881315 -0.049338419 -0.26431152 0.56044132 0.37665156
-0.034777146 -0.026651874 -0.025688538 0.083945937 0.04561644 0.21656457 0.3539812 0.31658602
-0.025213411 -0.02711032 -0.02948349 -0.0092558032 -0.01347985 0.58171809 0.2537294 0.28937769
-0.012937628 -0.025462205 -0.026705826 0.0051633106 0.019150343 -0.15668587 0.45075068 0.22971186
-0.0052621663 -0.025046028 -0.025881073 0.014926635 0.036154427 -0.28252956 0.48987448 0.19286861
0.0049728989 -0.025915245 -0.028466722 -0.015761005 -0.021024004 -0.42638636 0.52430898 0.15495512
0.013560506 -0.022386592 -0.028885739 -0.015354595 0.0060113086 -0.10635478 0.43777835 0.13369435
0.026344536 -0.024093909 -0.026930405 0.037715051 -0.043421682 0.94573057 0.16830176 0.13541657
0.034934841 -0.025142286 -0.026124967 -0.20371988 0.055879585 0.29444239 0.33429185 0.10303045
0.04246971 -0.025183802 -0.022281244 -0.13147061 0.027061934 0.13897429 0.52890623 0.39996171
-0.042982016 -0.013188343 -0.023460587 -0.14890125 -0.0099324891 -0.14220665 0.56196636 0.41948313
-0.034707971 -0.016155878 -0.026431024 0.005798629 0.015117246 0.053848885 0.39506161 0.30493692
-0.025244899 -0.014215375 -0.028534582 -0.036668029 0.005722479 -0.010171414 0.41177002 0.27048922
-0.013643824 -0.015121573 -0.028340472 -0.06933099 -0.023247037 -0.21124145 0.45916137 0.22757716
-0.0041484195 -0.016117431 -0.026579708 -0.0096467733 -0.13563113 -0.34139854 0.49819219 0.18982488
0.0046425802 -0.015672747 -0.02717902 0.051956553 -0.093133301 -0.4210518 0.51600587 0.15464528
0.0150441 -0.016029138 -0.028298195 -0.010599819 0.014858608 -0.45528799 0.51724619 0.1219561
0.02461106 -0.016743384 -0.028234594 0.012111867 0.0068238503 0.02007339 0.40879005 0.10795884
0.034093179 -0.014849906 -0.0287374 -0.046473112 0.038437285 0.044863876 0.39889792 0.07502941
0.042569701 -0.013377765 -0.022886384 -0.0086087985 0.0071221422 0.023814984 0.46048516 0.2553167
-0.041979983 -0.0055064745 -0.021031504 0.016518481 0.0035722833 0.022589458 0.45474362 0.42246076
-0.034495641 -0.0042510703 -0.026139289 0.038990382 -0.010653053 0.38929835 0.32787701 0.31776768
-0.025006911 -0.0049762474 -0.02632365 -0.037546121 -0.0070324065 0.25017989 0.35931379 0.27704993
-0.014989662 -0.0052289451 -0.027845785 -0.051277369 0.018243283 -0.65710038 0.53989118 0.21244466
-0.0057675792 -0.0052788206 -0.025313102 -0.0020306965 0.0014910378 -0.07491307 0.42856339 0.20134129
0.0055195256 -0.0050121387 -0.027986147 0.078923672 -0.0040987819 -0.29905179 0.47283992 0.15863201
0.015113263 -0.0052861413 -0.027596092 0.026382636 -0.0042687478 -0.16542931 0.44492429 0.13160367
0.026707103 -0.0034393859 -0.026537593 0.040365882 0.0029961546 -0.056461226 0.42578074 0.10382245
0.034914747 -0.0035827155 -0.027565019 -0.026867647 0.00062826223 0.12318264 0.38739139 0.077554561
0.044264559 -0.0061824666 -0.024706718 -0.20388703 0.0099338796 0.20271818 0.41390419 0.21292314
-0.042825989 0.0065746801 -0.022111688 -0.10013265 0.010720202 -0.082240961 0.50232184 0.48269808
-0.034875482 0.007667331 -0.026786996 -0.014102841 -0.013992665 0.030661171 0.40197468 0.30650038
-0.026471019 0.0047138059 -0.027100833 -0.017523043 -0.026434934 -0.11422162 0.42755672 0.26759496
-0.014002925 0.0049536047 -0.027999436 -0.059270963 -0.014107295 -0.43248221 0.48319483 0.2197098
-0.0064428309 0.0074209496 -0.026296694 -0.035862997 0.0012718295 0.081635118 0.39724976 0.21081445
0.0052649952 0.004028162 -0.026632087 0.015467348 0.0054320651 -0.15379889 0.43695736 0.16713303
0.015589403 0.0052540372 -0.026427962 0.053906266 -0.034827922 -0.4670285 0.48882642 0.1237423
0.024654387 0.006043897 -0.028850267 0.045630541 0.00059734506 0.21221985 0.38012403 0.11743094
0.034755383 0.0045338161 -0.025711114 -0.080590785 0.0014895534 0.22499609 0.37302426 0.082516387
0.042501219 0.0027299195 -0.022234689 -0.16940521 -0.001067028 0.19100733 0.45902893 0.23787838
-0.041503657 0.014750936 -0.021418415 -0.17920902 0.02770224 -0.15779772 0.49340159 0.56667978
-0.033641938 0.016389154 -0.026699817 0.041056864 -0.009345863 0.19159396 0.38236719 0.31449437
-0.023937097 0.016596269 -0.028341576 0.011158798 0.012888764 0.1274128 0.39520356 0.27351779
-0.015865583 0.015537157 -0.028096013 0.02170776 -0.013438844 -0.53340459 0.47994095 0.21847197
-0.0037216351 0.013970036 -0.027099693 0.010638753 0.10278394 -0.29550597 0.45502189 0.19384278
0.0054348507 0.014182201 -0.028631447 -0.01427862 0.034504969 -0.58528227 0.48602754 0.15125066
0.0165076 0.015661016 -0.026726868 -0.032413647 -0.0058972393 -0.56536412 0.48628449 0.11752967
0.025854664 0.012153814 -0.027245702 0.049793307 -0.012222505 0.054924369 0.40896857 0.11094877
0.035905953 0.015136034 -0.02889994 -0.046635665 -0.022090862 0.10725547 0.39667368 0.080912277
0.043901939 0.014562164 -0.02221339 0.010133988 0.0037377391 -0.0040413155 0.41197965 0.24207403
-0.041031118 0.022105455 -0.020318842 -0.50431043 0.1118146 -0.46552923 0.46610165 0.47290549
-0.034239523 0.026017975 -0.026741821 0.11674597 -0.022698162 0.22672614 0.41757876 0.35563284
-0.026948739 0.026011737 -0.02667745 0.019854829 -0.0069718864 0.82583016 0.33312064 0.3086229
-0.015011931 0.025395304 -0.029527875 -0.0077764434 -0.021486398 -0.11537069 0.42577136 0.23584236
-0.0061309887 0.023595389 -0.027968988 0.00035795031 -0.021946548 -0.046763334 0.41838455 0.20803092
0.0061501078 0.02399224 -0.028512195 -0.0048579117 -0.037251044 -0.097441696 0.42596456 0.17188081
0.013783967 0.02222316 -0.028402796 0.0085599106 0.0096374843 0.17636244 0.40060234 0.15166235
0.027806023 0.026622133 -0.026924323 0.074806631 -0.0018606856 0.39673731 0.38279179 0.12808669
0.03687191 0.024001472 -0.026269818 -0.11941114 -0.072889522 0.132833 0.40060157 0.085547745
0.042533286 0.022819709 -0.022220127 0.10526844 0.020521091 -0.072934732 0.44129905 0.30135027
-0.040862847 0.032549772 -0.019686725 -0.67085147 0.29682943 -0.6784907 0.38546196 0.57545525
-0.034710012 0.034239106 -0.022525916 0.076678082 -0.043620408 0.12866257 0.40680364 0.31734285
-0.026191903 0.034631982 -0.026356248 0.045563199 -0.16341911 0.33561686 0.4115003 0.32025433
-0.015420964 0.034292161 -0.025924878 0.012983072 -0.12557808 0.44397822 0.38933471 0.27476642
-0.0036065062 0.034717105 -0.028682189 -0.0079325186 -0.0021864236 0.33016285 0.38997918 0.2222739
0.0056710476 0.03613878 -0.027007114 0.0072029629 0.036066059 0.22699395 0.39955434 0.18811721
0.013987382 0.035797551 -0.025402814 0.0075475341 0.036529701 0.15768197 0.41943845 0.18924348
0.023983316 0.035929032 -0.024865838 -0.020863891 -0.077978641 0.19941758 0.4461759 0.20431225
0.03473502 0.035622206 -0.023643356 -0.056146275 -0.043175146 0.10774665 0.45345256 0.15512836
0.042922113 0.031464241 -0.020491971 0.56508076 0.28566653 -0.6020844 0.39881644 0.13820432
-0.029497717 0.040242016 -0.020327834 -0.24083699 0.67506951 -0.69650853 0.46348548 0.25501001
-0.023424486 0.041060831 -0.02021379 -0.058638897 0.26349965 -0.23049043 0.58603793 0.30444348
-0.016269149 0.039463032 -0.021449115 0.014416209 -0.13603184 0.1579365 0.57467961 0.37139261
-0.0037652007 0.043617364 -0.022274025 0.0046462477 -0.12902041 0.15367801 0.51758593 0.31771129
0.0052178209 0.04303303 -0.020454876 0.0069158399 0.05013008 -0.042985078 0.60102248 0.3410311
0.012582089 0.039433457 -0.021502599 0.030024756 0.24391565 -0.21063513 0.61596966 0.33501002
0.022194199 0.040673099 -0.020391323 0.059016611 0.28344446 -0.2453288 0.67706043 0.38836637
0.030850662 0.038888734 -0.021448454 0.20274949 0.71787202 -0.66585302 0.77373397 0.296229
-0.031776268 -0.052379474 -0.010628434 -0.2054355 -0.810251 -0.54884452 0.29624701 0.96605951
-0.02324518 -0.052257992 -0.012379595 -0.16456828 -0.81510657 -0.55495137 0.27173123 0.96962804
-0.013793007 -0.050764695 -0.013784305 -0.078615598 -0.55794549 -0.3802253 0.32078865 0.96971381
-0.003866415 -0.052967709 -0.013137561 -0.013174001 -0.28225577 -0.20307414 0.38669255 0.97044158
0.0046921098 -0.049878065 -0.013404787 0.010160275 -0.32142478 -0.23814642 0.35754007 0.97120088
0.016100954 -0.051797293 -0.012789495 0.041381139 -0.48864713 -0.34541765 0.28146237 0.97077829
0.025464514 -0.053101521 -0.012626221 0.13471223 -0.81955868 -0.55605263 0.10943111 0.97134399
0.034013703 -0.050999213 -0.011405705 0.23113957 -0.79581976 -0.55595392 0.082887627 0.96666044
-0.042816296 -0.042660676 -0.012608475 0.020850668 0.035374597 0.0051257093 0.4438206 0.80883104
-0.037196223 -0.044688288 -0.01415564 0.12043121 0.29551676 0.21805006 0.5558117 0.84794319
-0.025550084 -0.045365524 -0.015148891 0.087815583 0.42856067 0.30475175 0.59882694 0.89000177
-0.01360427 -0.049393155 -0.016065009 0.083788887 0.63365912 0.44311592 0.61544758 0.91518742
-0.0070147272 -0.04725875 -0.018489778 0.033033185 0.5382024 0.39002696 0.64123428 0.87469518
0.0051388256 -0.046721861 -0.016378829 -0.013929035 0.57182449 0.42520446 0.72410369 0.94266534
0.016614545 -0.046358742 -0.014767773 -0.047932424 0.51892292 0.37640169 0.66169125 0.86562449
0.025043136 -0.046222612 -0.015633566 -0.074515603 0.46158338 0.33307037 0.65781784 0.91019809
0.035664521 -0.044929344 -0.012780491 -0.1862801 0.39510876 0.31129637 0.58706379 0.72935164
0.042959485 -0.04226613 -0.012057401 0.05331612 0.018614503 -0.042642064 0.3960366 0.49921265
-0.042860251 -0.034418438 -0.016222529 0.2325794 0.10855205 0.17518429 0.64766002 0.71547461
-0.037928171 -0.038575821 -0.018578621 0.47873923 0.53662181 0.64190209 0.26867622 0.47680625
0.037666395 -0.036102571 -0.019134656 -0.599114 0.43215328 0.65930104 0.28144965 0.25376004
0.043280676 -0.035739396 -0.014394673 -0.33954948 0.124326 0.24604839 0.55824089 0.59853905
-0.050744109 -0.027756449 -0.011228556 -0.845851 -0.11986786 -0.51919407 0.11024959 0.78090185
-0.046696007 -0.023155533 -0.016773898 0.44017372 0.071658567 0.31442326 0.67716378 0.7633546
0.045840401 -0.025938446 -0.016812172 -0.50410521 0.10633522 0.36673838 0.61176437 0.60168254
0.051246669 -0.025868189 -0.010198415 0.82747066 -0.14668299 -0.54153407 0.26349962 0.59440833
-0.051726796 -0.016011667 -0.012030304 -0.83851647 -0.073735006 -0.53939247 0.14488281 0.78457862
-0.048352696 -0.014739166 -0.0161936 0.47213501 0.048140351 0.32390285 0.68307072 0.78657317
0.046026669 -0.015161484 -0.016307926 -0.47051632 0.06200859 0.3285574 0.61803186 0.60027188
0.05277184 -0.014877656 -0.011433748 0.61178023 -0.069587268 -0.39755654 0.30020902 0.59688109
-0.050772633 -0.0056133354 -0.013886075 -0.83829856 -0.010256001 -0.54421693 0.1784693 0.78538764
-0.047306068 -0.0048963795 -0.014980464 0.4278973 0.011631772 0.29801285 0.64045131 0.79531014
0.045484506 -0.0043090852 -0.017025668 -0.56843507 0.03130433 0.40002099 0.67282635 0.60886729
0.050449498 -0.0043271342 -0.011793033 0.22290866 -0.0034680236 -0.15705514 0.40261742 0.59588438
-0.050574347 0.0031674011 -0.012369279 -0.57283479 0.039169386 -0.38688564 0.29740617 0.78276062
-0.046679918 0.0054229749 -0.016909765 0.44552797 -0.025513167 0.31655499 0.62896025 0.79584831
0.047482204 0.004587159 -0.016707897 -0.54220366 -0.015894828 0.39690882 0.68745995 0.61024368
0.051764835 0.004241629 -0.012563988 0.30027083 0.014687655 -0.21356532 0.36389616 0.59705532
-0.049954254 0.015690351 -0.012140024 -0.83879554 0.11556 -0.53180718 0.24389772 0.78211832
-0.046719082 0.014167494 -0.014214288 0.46761546 -0.058313355 0.31419933 0.6169759 0.79203534
0.04810033 0.014448514 -0.015067579 -0.53192854 -0.0700472 0.40012026 0.70227379 0.59973049
0.051528458 0.0149701 -0.011215851 0.66899198 0.11061695 -0.40809444 0.20419575 0.59720153
-0.052120656 0.02436129 -0.010589758 -0.83352131 0.15625468 -0.52928269 0.27314502 0.78008336
-0.044250138 0.025550216 -0.013946946 0.41073447 -0.084999703 0.29118517 0.59239823 0.77767414
-0.041214593 0.028278513 -0.020258006 0.73622853 -0.189291 0.64955604 0.673769 0.80542052
0.045009956 0.025684183 -0.014848082 -0.36991012 -0.062617525 0.27291107 0.65096277 0.60378593
0.049644489 0.02535929 -0.012032446 0.81838435 0.1458661 -0.55552238 0.10321901 0.59450728
-0.043369982 0.034594163 -0.013312114 0.32014605 -0.10263807 0.21791393 0.56155169 0.76597965
-0.039075747 0.037580196 -0.019406309 0.42809954 -0.28875777 0.46864033 0.53376645 0.54617393
-0.030109985 0.04229448 -0.019876383 0.22043499 -0.70836502 0.67049199 0.56890303 0.53441697
0.030710027 0.039325833 -0.018445693 -0.1852165 -0.71167648 0.67749548 0.56808102 0.72517598
0.036455713 0.038100142 -0.018411431 -0.26527223 -0.36229566 0.4020215 0.54404944 0.46036774
0.042954795 0.035266321 -0.013926974 -0.15441506 -0.06801416 0.1191744 0.57755983 0.5152812
0.049186453 0.030485308 -0.0092613827 0.817011 0.19837049 -0.54086399 0.082140498 0.59181148
-0.041293401 0.042896613 -0.012891511 0.097870901 -0.072693594 0.082710117 0.60511053 0.52209991
-0.034730803 0.041777693 -0.013634801 0.15861613 -0.30165794 0.24185961 0.61313295 0.40229571
-0.025886748 0.046408184 -0.016192548 0.084217086 -0.43979934 0.33077657 0.60727376 0.45098022
-0.014544897 0.046472982 -0.015740452 0.064122304 -0.59507257 0.40735307 0.58502799 0.52295065
-0.0059336931 0.047255002 -0.015061048 0.011352897 -0.3865504 0.27269772 0.61608964 0.49895969
0.0050902846 0.048069905 -0.015765615 -0.016479274 -0.38094231 0.25944111 0.61591101 0.52908784
0.014624621 0.045233186 -0.014047615 -0.046835739 -0.36307541 0.26038232 0.61831588 0.56132662
0.02412642 0.04305261 -0.016399644 -0.070053689 -0.34945244 0.24700685 0.61975777 0.58855349
0.035769928 0.042539991 -0.013801935 -0.10529675 -0.29434067 0.21182412 0.62428612 0.60906696
0.045377791 0.042437963 -0.01122024 0.20206746 0.2605277 -0.24896109 0.72618383 0.46043169
-0.018728184 0.049230102 -0.0099089574 -0.113346 0.84514898 -0.52232403 0.80564302 0.127018
-0.011753923 0.049845949 -0.010318914 -0.082208291 0.83575809 -0.54267591 0.80477601 0.14865401
-0.0053261756 0.050576825 -0.010464058 -0.018586002 0.84912294 -0.52747178 0.80440706 0.17618312
0.0025431509 0.051485565 -0.011340127 0.029966846 0.71065384 -0.45807567 0.78361011 0.23892078
0.012603058 0.051096391 -0.011506224 0.087061495 0.838664 -0.53752273 0.80650479 0.23621951
-0.0031115836 -0.060097177 -0.0020780172 -0.041169506 -0.8937192 -0.44642469 0.205347 0.93347019
0.0026041158 -0.059525274 0.00025323057 0.0128362 -0.8971774 -0.44105321 0.1741554 0.93352646
0.013621997 -0.05853812 -0.0018865187 0.062624 -0.89698499 -0.43725401 0.153229 0.932643
-0.043944329 -0.052751239 -0.0032723909 -0.38926944 -0.70957506 -0.47734988 0.31686562 0.92482191
-0.034658376 -0.05420275 -0.0046661487 -0.039609153 -0.1296823 -0.098383069 0.45272395 0.9400847
-0.025818933 -0.053182725 -0.0056371945 0.034603763 0.18566608 0.088590175 0.52447242 0.94073421
-0.013653866 -0.055445068 -0.0045811329 0.045565549 0.36354724 0.19071218 0.58130819 0.94295055
-0.003922801 -0.055487689 -0.0064862464 0.012966116 0.21806633 0.10459913 0.54683554 0.94504589
0.0038485723 -0.055637952 -0.00426808 -0.0043733367 0.37559196 0.19112195 0.61011779 0.94418782
0.016739082 -0.054517955 -0.0057445113 -0.035127018 0.41023821 0.21635884 0.63945186 0.94291943
0.023689497 -0.052134234 -0.0068016471 -0.077898055 0.50003099 0.27808017 0.69598371 0.9420501
0.03577546 -0.051683776 -0.0029211282 -0.087287419 0.37005028 0.1938931 0.65289867 0.93700325
0.042971753 -0.052352011 -0.0017254325 0.20372698 -0.25406894 -0.20903312 0.37172252 0.86439633
-0.05229222 -0.044733204 -0.0025783535 -0.79206496 -0.34951761 -0.49461234 0.054286841 0.75339735
-0.045797192 -0.046834581 -0.0061562993 0.32200155 0.3609598 0.29038906 0.62575358 0.83830565
-0.037055925 -0.047024623 -0.0054745707 0.25355729 0.78581959 0.4878273 0.64581299 0.94736606
-0.026583822 -0.050035723 -0.0092758173 0.17013094 0.84485137 0.5068171 0.6851446 0.95283186
-0.018023532 -0.049976636 -0.0087889535 0.12894049 0.84336352 0.52156103 0.70927852 0.95613253
0.028378833 -0.050204318 -0.0094584934 -0.14545846 0.84413028 0.51585412 0.85958815 0.95382226
0.034128442 -0.046368282 -0.0077516031 -0.26240543 0.78659546 0.50293112 0.87831402 0.94879979
0.044420041 -0.045688655 -0.005164104 -0.43508884 0.40780351 0.36649278 0.65653664 0.67491156
0.051311567 -0.04436814 -0.00060115592 0.53126609 -0.23089221 -0.34652683 0.37753281 0.56471187
-0.05230692 -0.035437919 -0.0024703452 0.1195446 0.026309827 0.041584659 0.53109103 0.75543952
-0.046910811 -0.037197813 -0.0063692979 0.76696998 0.25294578 0.48214754 0.86328363 0.76682752
0.046960615 -0.036478527 -0.0063465163 -0.77619249 0.25233313 0.485201 0.64535183 0.57994473
0.051979497 -0.034020457 -0.0032712561 -0.14302886 0.033352822 0.058349878 0.50949806 0.56787854
-0.052668594 -0.026331572 -0.0050281407 0.22453955 0.035062477 0.10908058 0.57471955 0.75832403
-0.048787329 -0.026403636 -0.0077269576 0.85107553 0.13846757 0.50595862 0.85473853 0.77137882
0.048608396 -0.027311096 -0.0088926265 -0.84606373 0.16560389 0.50637358 0.6870929 0.58496094
0.053361215 -0.023980174 -0.0023021386 -0.20019902 0.035889518 0.094938889 0.52758509 0.57068419
-0.052381881 -0.014233883 -0.004675352 0.10824479 0.012509538 0.052342266 0.52261221 0.75945729
-0.049212594 -0.018904969 -0.0097225895 0.84942925 0.10510575 0.51693773 0.82691574 0.77495754
0.049027797 -0.01785164 -0.010654075 -0.8481245 0.1300545 0.51350451 0.71367395 0.58905751
0.052917227 -0.015645806 -0.0064288066 -0.30088559 0.038408954 0.15808812 0.56254947 0.57475078
-0.052781995 -0.0032630744 -0.0072334195 0.18877117 0.0022568605 0.090265989 0.54494578 0.76124084
0.056036763 -0.0031646017 -0.0039191479 -0.27987725 0.016697012 0.14858104 0.56662822 0.57374865
-0.054134611 0.0049465396 -0.0050844699 0.43946522 -0.022089018 0.22541142 0.61467361 0.76000899
-0.049307507 0.0071637542 -0.009429385 0.85241199 -0.075990997 0.51728898 0.73881054 0.77461648
0.055171829 0.0044730296 -0.0046268087 -0.35286078 -0.0060265795 0.18035199 0.60260695 0.5731653
-0.053593956 0.013071722 -0.0048466926 0.22546974 -0.021628376 0.11497955 0.54288065 0.75897205
-0.050166182 0.015434775 -0.0088779218 0.85521841 -0.10690832 0.50691819 0.71805561 0.77305692
0.053664338 0.015932847 -0.0031916499 -0.18800579 -0.011531522 0.095206827 0.55178642 0.57134366
-0.049762946 0.024980072 -0.0033749347 0.20258877 -0.044378385 0.098394632 0.52919519 0.75793117
-0.048092108 0.027832078 -0.0069373753 0.81987125 -0.16562304 0.48267037 0.67719728 0.76958072
0.048917729 0.025497729 -0.0084396824 -0.84226733 -0.14670259 0.51860112 0.86168784 0.58474153
0.052420922 0.027717242 -0.0024415301 -0.39346063 -0.060560726 0.20091574 0.64797568 0.56931418
-0.052499253 0.033021487 -0.0025983022 -0.11460439 0.046230927 -0.090676449 0.45795816 0.75212878
-0.047756776 0.036755659 -0.0061236932 0.64163762 -0.19620827 0.37845206 0.61298734 0.76316917
0.049874295 0.034326706 -0.0071931616 -0.55385637 -0.17940587 0.3438786 0.75769001 0.57993871
0.052632757 0.035834357 -0.0019761249 -0.30576164 -0.062568933 0.14751664 0.61888379 0.56758541
-0.050398163 0.042089354 -0.002867952 -0.79714382 0.36210644 -0.48054004 0.33224672 0.75109887
-0.043126125 0.04483927 -0.0046015973 0.30549175 -0.22784272 0.22244921 0.61002034 0.56184214
-0.03865822 0.047483683 -0.0072854189 0.21362352 -0.5651629 0.35718346 0.56765807 0.44542569
-0.024606079 0.048835315 -0.0081574433 0.10244133 -0.63152558 0.36978278 0.56774408 0.48769665
-0.015592945 0.049454562 -0.0098306984 0.089917086 -0.86174887 0.498851 0.53463066 0.57572329
0.010660587 0.050331056 -0.010813563 -0.066500001 -0.86059099 0.50489801 0.53601402 0.66042
0.015029961 0.049459442 -0.010932658 -0.10156911 -0.86279213 0.49487442 0.5344516 0.67861068
0.025349138 0.04907839 -0.0077419509 -0.13260955 -0.70839626 0.42239353 0.55331397 0.67778397
0.037754245 0.047654204 -0.0064848345 -0.13227955 -0.4669427 0.26901531 0.58788317 0.6512081
0.044991892 0.044279326 -0.0049832463 -0.18562466 -0.20733179 0.16489595 0.65886623 0.6005913
0.051812164 0.040726669 -0.0025329101 0.15006895 0.15070894 -0.14156306 0.54271704 0.51636302
-0.039883092 0.050461449 -0.0001624088 -0.27235159 0.56345892 -0.34435329 0.78661948 0.12001942
-0.035304267 0.052627951 -0.0016164063 0.0010375991 0.017769409 -0.024146583 0.67380607 0.29217038
-0.026274068 0.05213356 -0.0031227907 0.044589482 -0.28198731 0.13544889 0.62064016 0.39904401
-0.013076621 0.052941773 -0.0035727969 0.02329549 -0.2611101 0.1332905 0.62699807 0.4251267
-0.0040208213 0.053029995 -0.005061218 0.0078810975 -0.32957414 0.16406322 0.61544526 0.4755995
0.006625033 0.052121073 -0.0046454687 -0.020697936 -0.49802992 0.25184304 0.58532965 0.54816592
0.014192261 0.054277182 -0.005058296 -0.028400278 -0.28040108 0.13560283 0.6227529 0.52832323
0.023359848 0.052641347 -0.0023672013 -0.027948303 -0.21605769 0.10728688 0.63188589 0.54494196
0.031957041 0.049783051 -0.0023918068 -0.0014677913 -0.025880884 -0.006557256 0.66697478 0.52469712
0.041065793 0.049968947 -0.0013027517 0.29116216 0.82982886 -0.47543252 0.83690822 0.32984686
-0.033440921 -0.059354447 0.0091575524 -0.18453157 -0.91184878 -0.36646056 0.30354238 0.90247262
-0.024741346 -0.062979557 0.0074183866 -0.15291886 -0.9077096 -0.38977087 0.27243569 0.90809208
-0.014452235 -0.062025491 0.0039575198 -0.098831482 -0.91238594 -0.39519593 0.24226487 0.91549313
-0.0060034338 -0.063293748 0.0058516399 -0.033481523 -0.69911426 -0.3078922 0.27177742 0.91319138
0.0051398915 -0.061231222 0.0073019741 0.0155364 -0.62303627 -0.27138773 0.27184355 0.91173244
0.01449829 -0.061533697 0.0050719995 0.060358785 -0.70835388 -0.31517249 0.21656732 0.91376698
0.02524868 -0.060450669 0.0077173989 0.1330869 -0.90989989 -0.39162514 0.10843999 0.91089261
0.032585088 -0.060426556 0.0064979251 0.15806918 -0.9092167 -0.38436377 0.079883046 0.90652066
0.042371798 -0.061101671 0.0097321998 0.28083134 -0.87238163 -0.39872432 0.055957001 0.89994764
-0.052066091 -0.053502392 0.0038018506 -0.57652825 -0.5912196 -0.43500701 0.16779467 0.80072254
-0.045245402 -0.053345576 0.0075288666 0.1380631 0.31471932 0.13235852 0.53509492 0.90718913
-0.036239445 -0.055476602 0.0046312255 0.14817016 0.61996615 0.26770166 0.60229409 0.91068858
-0.024674321 -0.056217209 0.0036451332 0.15009925 0.78212488 0.32611734 0.65951163 0.91132337
-0.014131553 -0.056436703 0.0039866413 0.091349535 0.89845818 0.36611113 0.71629304 0.91104001
-0.0051110121 -0.057758696 0.0041283811 0.04350055 0.92557573 0.37493321 0.75559229 0.90984875
0.0063114353 -0.057741884 0.0037059949 -0.011148108 0.92416465 0.38058826 0.78574806 0.911982
0.015405417 -0.057125296 0.0038326459 -0.074470066 0.92110783 0.3805353 0.82273728 0.91061747
0.023330828 -0.055521291 0.0041387505 -0.11015902 0.81235647 0.33408526 0.81097227 0.91027439
0.036378998 -0.054664172 0.0042790244 -0.14233887 0.68797046 0.29974681 0.79056406 0.91188133
0.044689897 -0.054842893 0.0060046306 -0.16056331 0.30421984 0.15631394 0.63727289 0.84819728
0.051597387 -0.050215222 0.0084406203 0.5075748 -0.42276001 -0.33388415 0.38079402 0.54289621
-0.052733846 -0.046233907 0.0068303468 0.11769752 0.12994073 0.058429625 0.55543858 0.73102069
-0.047199208 -0.047781277 0.0030995773 0.59608024 0.64983964 0.45019251 0.73011559 0.84637171
0.04721532 -0.046838831 0.0025302265 -0.69121397 0.53951019 0.46455479 0.66035253 0.60089433
0.052289788 -0.043227125 0.0058312682 -0.33677599 0.15930101 0.1656187 0.54058391 0.54022384
-0.061734706 -0.031778362 0.0090289619 -0.91497552 -0.1386915 -0.37887198 0.090370499 0.71563601
-0.053601034 -0.034254357 0.0053832959 0.54855752 0.12012079 0.23898193 0.728432 0.72777909
0.054437749 -0.036375474 0.0047237054 -0.456525 0.10619177 0.19376867 0.56847322 0.54110855
0.061580259 -0.033553969 0.0091445921 0.91342771 -0.16716744 -0.37096113 0.28865331 0.5283193
-0.061913572 -0.023859877 0.0086124009 -0.91171306 -0.13386029 -0.38566995 0.11623341 0.72123951
-0.05667109 -0.023868147 0.0041170046 0.68648058 0.096347906 0.28493112 0.7600733 0.72846913
0.056912012 -0.025108945 0.004979983 -0.58189613 0.090169929 0.22924639 0.61528015 0.54136771
0.062949471 -0.023574179 0.0071003744 0.91906929 -0.13727534 -0.36882532 0.26421031 0.53306401
-0.061020888 -0.01496357 0.0072346199 -0.92246389 -0.062024936 -0.37960646 0.14414625 0.72493738
-0.056638654 -0.016218841 0.0054638013 0.72170752 0.05772987 0.28315434 0.74556112 0.72762287
0.056279495 -0.015880965 0.0043308507 -0.69254661 0.078675866 0.27613765 0.66078287 0.54200757
0.064034842 -0.016539384 0.0060320068 0.92177075 -0.094674669 -0.36726835 0.23506498 0.53610641
-0.06362956 -0.0059514064 0.0077068699 -0.92609143 -0.0024002348 -0.3758066 0.17961712 0.72162175
-0.057990577 -0.0053492268 0.0035597514 0.6805082 0.011549 0.26496348 0.703794 0.72781807
0.05767674 -0.0055628885 0.0038641109 -0.80137241 0.030142989 0.32182741 0.72174525 0.54398978
0.062141038 -0.0039462522 0.0056207059 0.6577481 -0.022893237 -0.27695534 0.28092179 0.53706002
-0.06099318 0.0052218623 0.0052053533 -0.92623132 0.044321761 -0.37350321 0.21064445 0.72168797
-0.058991041 0.00710236 0.0045568338 0.62516201 -0.030017711 0.24427021 0.66312182 0.72939378
0.059443958 0.0055390354 0.0042827316 -0.84272897 -0.019483624 0.34273928 0.7650556 0.54374808
0.063210703 0.0055126143 0.0044710902 0.52220333 0.02368786 -0.23183262 0.30120593 0.53714061
-0.059490867 0.014126564 0.0091179544 -0.92144203 0.10110638 -0.37453833 0.24433796 0.72125322
-0.055915818 0.013213767 0.0031189779 0.58891279 -0.062511444 0.23827305 0.63364893 0.72986591
0.057116609 0.015322843 0.004536883 -0.72346473 -0.055793494 0.29235062 0.74751031 0.54220581
0.062855527 0.014990822 0.0055992198 0.91572005 0.088951282 -0.39072734 0.1332173 0.53744978
-0.060060877 0.022601549 0.0091546662 -0.92032844 0.14447461 -0.36308461 0.2680912 0.71765321
-0.055863392 0.026639845 0.0030012459 0.54695278 -0.09886796 0.22554411 0.60282475 0.7292428
0.056223202 0.025425881 0.0050072186 -0.64572841 -0.090268008 0.26089919 0.74551743 0.54242152
0.06141125 0.023766568 0.0055307667 0.91619623 0.13384654 -0.37710971 0.105894 0.53256881
-0.055627532 0.035178404 0.0055524735 0.54373032 -0.12856817 0.23495929 0.58591545 0.72757035
-0.048531756 0.040082384 0.0013778687 0.83844537 -0.30812499 0.44858134 0.63893235 0.74266803
0.057352964 0.034444589 0.0056393598 -0.46202236 -0.10426269 0.2088255 0.690736 0.54299617
0.060082477 0.033223085 0.0087886602 0.91431952 0.17056799 -0.36687851 0.075471997 0.52662247
-0.051034387 0.045113847 0.0073955152 0.057805594 0.0032987525 -0.020772094 0.50634766 0.70282441
-0.048085369 0.047759876 0.0032388491 0.54346889 -0.43280756 0.34565288 0.58753902 0.61663693
0.047041733 0.046866402 0.002997573 -0.36706147 -0.45003286 0.27223331 0.58960915 0.68636829
0.053266305 0.044438869 0.0047532097 -0.041581541 -0.0044274884 -0.02774515 0.59277582 0.51464301
-0.051992651 0.050155886 0.0079355389 -0.6500966 0.55925596 -0.47598854 0.6867398 0.27265811
-0.045719128 0.052641351 0.0063929041 0.10093019 -0.18825924 0.057636328 0.61752826 0.3348549
-0.036084313 0.054152384 0.0056591816 0.11859097 -0.49567491 0.22172879 0.57009411 0.416289
-0.024820002 0.05796916 0.0054610907 0.061497409 -0.44057074 0.18488978 0.5847984 0.43299308
-0.01582963 0.056857318 0.004011428 0.044935398 -0.53178018 0.20773651 0.56454974 0.48539072
-0.0039867321 0.060286008 0.0034017526 0.01032815 -0.51254946 0.19437693 0.5686307 0.51410323
0.00455976 0.058991879 0.0070388084 -0.018247725 -0.48009869 0.18251918 0.57536352 0.53966755
0.014432554 0.055827182 0.0039607272 -0.025524918 -0.28186324 0.10579503 0.61600041 0.52647662
0.024961224 0.054919954 0.0054255119 -0.072526969 -0.48086962 0.19930981 0.57515311 0.60819799
0.034855917 0.054106083 0.0037848796 -0.07274124 -0.30558705 0.12055635 0.6087333 0.59900707
0.045941442 0.054238334 0.005902688 -0.06903182 -0.078427084 0.032524478 0.65028208 0.58105373
0.050867513 0.050857436 0.0089887688 0.54606992 0.75320226 -0.29641432 0.74547845 0.38579971
-0.022102766 0.060306333 0.010891047 -0.109165 0.93093699 -0.34845999 0.87266898 0.119679
-0.013010103 0.061025616 0.0071743038 -0.067097291 0.92652893 -0.36976674 0.86985481 0.14864929
-0.0046381508 0.059641529 0.0077405972 -0.0204446 0.9293313 -0.36785811 0.86765236 0.1749869
0.006643774 0.059898686 0.0089292936 0.040559005 0.93025696 -0.3642911 0.86787879 0.21040282
0.012804163 0.060699377 0.0081972117 0.082705334 0.92631835 -0.36729535 0.87033033 0.23551068
-0.044340208 -0.06187598 0.016627593 -0.29362243 -0.89482874 -0.32962084 0.33847693 0.87640697
-0.034800623 -0.064067096 0.015138571 -0.15923233 -0.80111355 -0.297515 0.33012399 0.88159966
-0.026660297 -0.05900139 0.016457211 0.01512514 0.12133095 0.01565324 0.50671434 0.87556219
-0.015062737 -0.063622922 0.015272317 0.043337092 0.44607478 0.12583306 0.59373033 0.87746823
-0.0031198743 -0.06098824 0.013405246 0.010773012 0.29725361 0.0780994 0.56487983 0.88000286
0.0053762915 -0.063734941 0.012875505 -0.0011302328 0.11467328 0.022582674 0.51657474 0.88056004
0.015146051 -0.062135775 0.016563991 -0.017047005 0.22442678 0.062943064 0.5609619 0.87946761
0.02562728 -0.062945016 0.015736986 -0.0081550339 0.091922008 0.010343724 0.51412439 0.8798961
0.035031788 -0.062092017 0.014892172 0.053083163 -0.25696364 -0.11628211 0.36360618 0.87920684
0.044843368 -0.062636808 0.014800119 0.29781693 -0.88384742 -0.35442236 0.04443343 0.8806197
0.051743153 -0.060006984 0.018137276 0.45266053 -0.82773316 -0.32964051 0.023523834 0.87076062
-0.054716166 -0.051304858 0.015991541 0.070562661 0.08459197 0.043423913 0.50851351 0.79134846
-0.046735507 -0.056619022 0.014104629 0.28351346 0.65321642 0.25677577 0.58750224 0.88048708
-0.036092542 -0.056591738 0.014905457 0.20767707 0.92783284 0.30810061 0.65192074 0.87773556
-0.024797263 -0.059667818 0.011307749 0.15125935 0.93416148 0.32280698 0.68731785 0.88643712
-0.015902948 -0.059801389 0.010474209 0.11635415 0.93353498 0.338716 0.71305186 0.89191616
0.019645013 -0.059721801 0.0099490732 -0.0861535 0.938124 0.33533749 0.83265448 0.891819
0.026382837 -0.05979941 0.01342196 -0.12450103 0.9362601 0.32796919 0.85649848 0.8889153
0.035618223 -0.059053276 0.012902177 -0.16880636 0.93149209 0.321251 0.88750201 0.88084394
0.045830742 -0.056585111 0.015054395 -0.28642827 0.66682869 0.26617828 0.8177315 0.87285173
0.052847076 -0.054077867 0.016422525 0.022326326 -0.024543284 -0.026317939 0.48180929 0.63270384
-0.060140595 -0.044430055 0.016450696 -0.91308182 -0.24366133 -0.32098734 0.052124575 0.68987262
-0.05642974 -0.046315406 0.01244121 0.61540949 0.28612146 0.24463281 0.79825884 0.69832999
0.055598199 -0.045600779 0.013805472 -0.58328116 0.21503738 0.21614133 0.57623512 0.51024449
0.058899101 -0.043767277 0.018317183 0.91490763 -0.22843105 -0.32925758 0.32622623 0.50168633
-0.06265267 -0.035427902 0.016667238 -0.72252578 -0.12573175 -0.25854841 0.16770345 0.69476789
-0.056904431 -0.036548682 0.014968232 0.89939845 0.1600537 0.30223119 0.86921674 0.69725913
0.057296716 -0.036104366 0.015699985 -0.87829602 0.1858364 0.29637563 0.6469453 0.51057106
0.063067183 -0.033003133 0.016092584 0.69818801 -0.1389966 -0.26142734 0.34354281 0.50855106
-0.062123567 -0.02439915 0.016321005 -0.059495665 -0.008958322 -0.048839413 0.45226842 0.6929552
-0.059742443 -0.024425507 0.011867045 0.94038349 0.12084626 0.31684363 0.85317576 0.70180327
0.060707673 -0.025603622 0.013013859 -0.93698549 0.14727123 0.31610733 0.69122332 0.51638973
0.063160717 -0.025240306 0.015384489 0.24238667 -0.032783721 -0.092729047 0.42429203 0.50588083
-0.063384667 -0.014242644 0.015992811 0.15199126 0.008441139 0.032154936 0.53312111 0.69267571
-0.058311559 -0.016363291 0.013487913 0.94450217 0.070099004 0.31990579 0.82253259 0.70685536
0.059075948 -0.018508947 0.010568894 -0.9425267 0.10798134 0.31578869 0.7158944 0.52226728
0.063451894 -0.014843513 0.014206749 0.21333203 -0.047227144 -0.033128668 0.42060322 0.50881135
-0.061342135 -0.003332366 0.014848072 0.3850573 0.0015832887 0.10871682 0.59982973 0.69603568
-0.061310902 -0.0027551409 0.010911508 0.95033306 0.0044080736 0.31094918 0.77978748 0.70850766
0.062260147 -0.0057929251 0.014293253 -0.29221842 0.015019346 0.077160776 0.56348395 0.51011682
-0.062315997 0.0067772651 0.015287133 0.091246776 -0.0011712073 0.012551397 0.50721908 0.6930815
-0.059329405 0.005656132 0.010324006 0.94492847 -0.048764095 0.32247636 0.75025553 0.707407
0.062586032 0.003900528 0.015343889 -0.25112286 -0.0015711341 0.065217473 0.56143957 0.50802147
-0.061810888 0.014496136 0.015248688 0.16515471 -0.014538353 0.01943253 0.52198207 0.6920442
-0.061281536 0.015691791 0.011461077 0.94409746 -0.098019145 0.31311247 0.71713489 0.70457816
0.059880707 0.017989239 0.0086046234 -0.93641973 -0.089673668 0.33891803 0.83166301 0.52319276
0.061763596 0.014143249 0.014615146 -0.27941689 -0.016125614 0.073156223 0.57875222 0.5076896
-0.063449822 0.024144698 0.017048046 -0.66187817 0.11546747 -0.24270934 0.33832896 0.69470048
-0.057320192 0.026024044 0.015036862 0.92176777 -0.15430886 0.29035169 0.67758268 0.69541484
0.059632596 0.026652496 0.010663865 -0.93351227 -0.13003267 0.33359784 0.85770321 0.5185591
0.060845196 0.025196383 0.017313948 -0.28584632 -0.029437542 0.071536995 0.58966351 0.50573337
-0.061473589 0.034741979 0.018877842 -0.92968088 0.19163884 -0.31394392 0.30785048 0.69115108
-0.057726089 0.035238452 0.015111959 0.76051766 -0.15755782 0.24546835 0.62410784 0.69554955
0.059168186 0.034390181 0.012754765 -0.89000458 -0.16560127 0.30401647 0.87198335 0.51096481
0.061150681 0.035680544 0.018716129 0.22313829 0.054099623 -0.10271009 0.37390777 0.50424182
-0.059508309 0.041536648 0.018479126 -0.93008202 0.218757 -0.29505301 0.33102599 0.68490499
-0.05402419 0.045512695 0.01556955 0.45216212 -0.20403114 0.17444421 0.55412728 0.69512898
-0.04962175 0.051226728 0.010143489 0.69896501 -0.60615897 0.379437 0.60479999 0.71028602
0.055930253 0.046190944 0.015119167 -0.37615135 -0.1676846 0.16063413 0.67504454 0.51723111
0.061704163 0.042257383 0.016569497 0.89258415 0.30219418 -0.33137572 0.043236542 0.50204849
-0.051579732 0.052990351 0.017829489 -0.09435302 0.11310582 -0.02498693 0.61571723 0.449182
-0.046111654 0.055382397 0.016449796 0.22273698 -0.35111502 0.17651968 0.58019257 0.36806768
-0.034733221 0.056510605 0.014259852 0.12345624 -0.65855801 0.21607004 0.51994008 0.44876608
-0.02516813 0.058722489 0.012129215 0.11891863 -0.90415728 0.29323646 0.46743751 0.53534627
-0.013541663 0.061122864 0.0096864831 0.076155439 -0.94521725 0.31670731 0.46546891 0.5791418
-0.0059703602 0.059356626 0.012357445 0.022306273 -0.94798821 0.31677112 0.46709925 0.60968208
0.0059788967 0.06040363 0.0119032 -0.036317963 -0.94824708 0.31452498 0.4668937 0.64732945
0.015607701 0.059016719 0.014208054 -0.092562653 -0.94488865 0.31330234 0.46334979 0.68092179
0.024760453 0.058085829 0.014245066 -0.11694971 -0.76737344 0.24435998 0.49698377 0.6728909
0.034995325 0.058261663 0.015185602 -0.097736791 -0.55057418 0.12610069 0.54237807 0.65626603
0.045652486 0.055156808 0.014518225 -0.13016467 -0.31565595 0.11713194 0.59414357 0.64003336
0.053135853 0.053742714 0.016586829 0.034186725 0.075887397 -0.030221483 0.69906813 0.5508759
-0.041031618 0.059521798 0.018351469 -0.23912749 0.92175055 -0.3050935 0.90186155 0.056120001
-0.034038782 0.061147403 0.018900663 -0.16409934 0.92218339 -0.34676656 0.89433563 0.080078326
-0.023839507 0.062691912 0.01598404 -0.021349667 0.14122409 -0.071326971 0.70239419 0.29644963
-0.014765513 0.061099835 0.015319603 0.0093924645 -0.1711493 0.038133733 0.63186884 0.39975885
-0.0043352433 0.06337177 0.016634753 0.0050956355 -0.44436315 0.12067709 0.56894487 0.49392733
0.0052659917 0.060724881 0.017099516 -0.0084019341 -0.20557675 0.040846553 0.6237427 0.47293884
0.015052587 0.061190251 0.016413284 -0.017000509 -0.20158727 0.037925273 0.62328255 0.50335801
0.024326283 0.060703937 0.016771074 0.067549087 0.4818415 -0.17586546 0.78329033 0.37727711
0.032578364 0.060738113 0.01845476 0.18285678 0.93342561 -0.30813867 0.90010577 0.30291647
-0.012422455 -0.070003241 0.029599164 -0.094973996 -0.98016298 -0.17377201 0.230671 0.8378545
-0.0034985954 -0.07076972 0.028924739 -0.014358921 -0.92915392 -0.27717918 0.20158969 0.84154892
0.0056136078 -0.072361812 0.028026823 0.022508584 -0.97620058 -0.20876697 0.17796317 0.84259999
0.013175664 -0.071899377 0.028629944 0.062311079 -0.97580642 -0.209011 0.14514151 0.83753538
-0.053002235 -0.063297421 0.026562039 -0.45412055 -0.84333056 -0.28009039 0.36254492 0.84656912
-0.046057969 -0.063118652 0.026592337 -0.22358325 -0.7408995 -0.21911699 0.36691943 0.84886676
-0.03444152 -0.062065918 0.024654308 0.02517597 0.11395907 0.01396328 0.50095606 0.84763092
-0.02637767 -0.065482482 0.0237855 0.039754935 0.27097505 0.055341523 0.54076421 0.84848201
-0.014496903 -0.064642966 0.024630992 0.029136525 0.31108734 0.060399264 0.55939716 0.84708554
-0.0050204452 -0.067089833 0.024260627 0.019155717 0.45425022 0.087754674 0.60638827 0.84917712
0.0056089084 -0.064366944 0.024082312 -0.0056801513 0.65889049 0.12887554 0.68714595 0.84959936
0.014397255 -0.065658092 0.025937892 -0.014485149 0.40031955 0.072573394 0.61645895 0.84616059
0.024810545 -0.065756671 0.026164077 -0.0087469798 0.1177834 0.015323233 0.52466369 0.84790671
0.035033643 -0.064776368 0.025665373 -0.052718624 0.32143074 0.071412511 0.61777359 0.84679323
0.043658335 -0.064482272 0.025378004 0.010149803 0.019523367 -0.011309902 0.48339331 0.84517848
0.054585703 -0.062157758 0.026412392 0.51669896 -0.79859197 -0.29410383 0.1201724 0.74359357
-0.061534435 -0.050561771 0.026902558 -0.87585503 -0.39098284 -0.27971634 0.024250733 0.66141301
-0.055633299 -0.056495886 0.024157077 0.20356959 0.20255016 0.079257093 0.57392424 0.7507571
-0.044555482 -0.057123333 0.022503991 0.3197704 0.90685207 0.26224834 0.62074053 0.85017014
-0.037598774 -0.060735054 0.02295465 0.202765 0.94457287 0.25786984 0.64538282 0.85638505
0.047965821 -0.058174547 0.023386635 -0.34732631 0.89396471 0.27422488 0.9253456 0.84962362
0.053487878 -0.055214852 0.023671189 -0.21847227 0.21719451 0.080894098 0.61500996 0.58470929
0.060748808 -0.051626522 0.026097195 0.88406986 -0.37839261 -0.26764309 0.35679245 0.47330371
-0.062765613 -0.044519033 0.024546515 -0.3123689 -0.10518537 -0.11360243 0.32701731 0.66496259
-0.056911852 -0.045136578 0.022759762 0.88338935 0.3000671 0.26444 0.90669447 0.66722393
0.057854354 -0.043799136 0.022764606 -0.92024016 0.28802159 0.25733882 0.62399995 0.47872689
0.061240852 -0.045370944 0.025440309 0.63196975 -0.179598 -0.19316603 0.38033289 0.47634006
-0.062480804 -0.034763288 0.026141426 0.45487142 0.072362803 0.098117031 0.66952926 0.66264015
-0.058351144 -0.037294235 0.023488652 0.94753361 0.16556536 0.27323225 0.89276516 0.67511415
0.05853869 -0.038139794 0.02163351 -0.93992019 0.20381373 0.27311838 0.6488657 0.4858157
0.061522443 -0.034229435 0.024130613 -0.26169315 0.054673158 0.056017157 0.52861452 0.47597677
-0.064309299 -0.025020998 0.026630806 0.21727368 0.025363667 0.040404551 0.56197244 0.66524845
0.065907978 -0.024524072 0.025502335 -0.32786962 0.048553929 0.072407454 0.5507099 0.47570857
-0.063986652 -0.014175884 0.02615872 0.29929709 0.019589555 0.059563309 0.58556855 0.6629101
0.062818706 -0.01542317 0.024245897 -0.28446546 0.025775541 0.053215116 0.55112565 0.47684547
-0.065349273 -0.0047009904 0.025671229 0.15099651 -0.0047186818 0.014352082 0.52787423 0.66341978
0.0674088 -0.0047205067 0.026500199 -0.18320228 0.012170162 0.033790074 0.53131849 0.47466332
-0.064579457 0.0046289903 0.024682868 0.24749923 -0.0058767246 0.038237724 0.54965252 0.66257292
0.066266857 0.0040004808 0.023334758 -0.11538846 0.0037748378 0.026633475 0.51648033 0.47517064
-0.064382017 0.016615193 0.024454039 0.34322917 -0.032872479 0.076572649 0.56573862 0.66341835
0.067385353 0.014028365 0.026337991 -0.092714533 -0.00054858183 0.012850795 0.50993556 0.47629437
-0.061578453 0.025162105 0.025506472 0.39349067 -0.053712513 0.087250397 0.5664677 0.66381449
-0.0600059 0.029834544 0.020525092 0.95185697 -0.164525 0.25841552 0.67395502 0.67754573
0.061743364 0.025278788 0.024397034 -0.25242436 -0.027170645 0.056106694 0.57765406 0.477018
-0.059807397 0.033643421 0.026733115 -0.017823888 0.011165864 -0.024106637 0.47998387 0.66032404
-0.059303567 0.036132272 0.023741733 0.94944888 -0.19165254 0.24782136 0.65258378 0.66939121
0.059407353 0.039183125 0.018498233 -0.94879001 -0.16773 0.26767799 0.90420699 0.48975399
0.060837537 0.035503447 0.025260335 -0.2778005 -0.037700076 0.061894141 0.59609145 0.47722659
-0.061138656 0.045215253 0.024628047 -0.92298841 0.27276561 -0.26428476 0.34028029 0.66134506
-0.057605978 0.04446895 0.025614366 0.74214625 -0.22861409 0.20249294 0.59587258 0.66666692
0.060203526 0.047113411 0.023358906 -0.86194062 -0.37042773 0.27321807 0.9188351 0.481691
0.061610177 0.04472851 0.024862217 0.31739461 0.14509867 -0.11353492 0.31373039 0.47524077
-0.060240928 0.051184766 0.028602121 -0.85958397 0.433882 -0.26987499 0.35961801 0.65250599
-0.052179564 0.054993518 0.02522245 0.14733411 -0.15420611 0.053597335 0.55059481 0.49733686
-0.04670044 0.058274556 0.023987459 0.28572038 -0.7320109 0.21197952 0.46960428 0.43681183
-0.03864247 0.058852188 0.020997174 0.17516245 -0.94851255 0.26283661 0.43487155 0.50693643
0.029359888 0.058851212 0.021745129 -0.149937 -0.95403898 0.25940701 0.43866301 0.72718197
0.035415422 0.057888083 0.023186749 -0.20452845 -0.94969809 0.23237185 0.42672229 0.74927264
0.044846542 0.059233554 0.024574004 -0.14368404 -0.54201061 0.11655299 0.52819264 0.68720192
0.056163471 0.055607367 0.025786888 -0.066105485 -0.042723794 0.017128434 0.66867149 0.5564571
0.060127828 0.053651769 0.026385665 0.81231135 0.50688565 -0.28249004 0.015580648 0.46797472
-0.051037259 0.061676688 0.029744999 -0.38468599 0.88692898 -0.25562301 0.93379098 0.028917
-0.044700887 0.061719391 0.027285593 -0.16186616 0.53676194 -0.16130647 0.81781322 0.13799267
-0.034310903 0.06058811 0.026648287 0.10480981 -0.40557396 0.1298296 0.55949348 0.39469606
-0.024492826 0.063060515 0.026074078 0.042158749 -0.35828459 0.079017356 0.5814063 0.40801772
-0.015462474 0.063346066 0.024721066 0.017215993 -0.26165679 0.049733181 0.60521746 0.41828409
-0.0046914327 0.065527275 0.023982212 3.36923e-05 -0.12835936 0.04189739 0.64217699 0.4231897
0.0051760646 0.065394603 0.025470076 -0.0024420668 -0.0255637 0.011050391 0.66803354 0.43187913
0.015888173 0.063699745 0.024872122 -0.019537708 -0.20975034 0.048891872 0.62027156 0.50646377
0.024180319 0.062665626 0.024137333 -0.026646698 -0.15050051 0.030146619 0.63373268 0.52642071
0.03430045 0.060608514 0.026606489 -0.032892581 -0.053489763 -0.014726439 0.65427125 0.53645462
0.043777008 0.061000116 0.027945131 0.22955626 0.93691736 -0.25956401 0.92631322 0.33512926
0.049754594 0.061003245 0.029378885 0.39640501 0.88012302 -0.261177 0.93795198 0.358518
-0.012385404 -0.069151528 0.034497656 -0.069815189 -0.69872659 0.38307115 0.12988432 0.5644654
-0.0044955183 -0.073427565 0.032402024 0.042457096 -0.67187256 0.21533664 0.13170308 0.60969281
0.0046984293 -0.071787626 0.034146581 0.0092824223 -0.67284256 0.32500541 0.10998821 0.58816206
0.014637239 -0.07133007 0.032333374 0.047340482 -0.68477058 0.26003441 0.09301354 0.60194808
0.02542489 -0.070996352 0.03356925 0.080463313 -0.82137996 0.36183688 0.075118698 0.5864439
-0.05315474 -0.062089331 0.032762814 -0.28441983 -0.50050825 0.38730353 0.2166241 0.52475625
-0.04462545 -0.065124579 0.03461431 0.051574368 0.16981597 0.66338265 0.20352481 0.53804082
-0.032814428 -0.064036533 0.030470783 0.085789107 0.32964182 0.64021653 0.25750613 0.55528408
-0.026229031 -0.065198511 0.033774205 0.050961524 0.35180071 0.69329917 0.26353616 0.5240742
-0.016267044 -0.067102693 0.034003999 0.047080155 0.45589858 0.7235654 0.2659983 0.48295927
-0.0046377331 -0.066480346 0.034177408 0.023110965 0.56641358 0.7340467 0.30149221 0.46543524
0.0034094676 -0.068702482 0.032479037 -0.027135586 0.57068515 0.73334581 0.31602815 0.44593215
0.016029317 -0.067966148 0.03211052 -0.027614251 0.5158217 0.74510574 0.31025308 0.40749821
0.024301736 -0.065366901 0.031135399 -0.046263162 0.47615099 0.67095417 0.35640126 0.45056444
0.034050126 -0.065347545 0.033633843 -0.044376887 0.24795467 0.64891064 0.25005564 0.37895694
0.044820454 -0.06292896 0.033162538 -0.05915108 0.23174556 0.68015718 0.25622869 0.34125006
0.052895781 -0.062197424 0.032573298 0.062041085 -0.043692458 0.58898085 0.082224205 0.2653141
-0.059132621 -0.054236576 0.033601452 -0.34657019 -0.19572006 0.60800755 0.17634574 0.52172536
-0.058410767 -0.057638124 0.034512851 0.30320513 0.31959146 0.69769084 0.25554711 0.51614088
-0.047961943 -0.059517216 0.032043044 0.28964102 0.85398847 0.40184921 0.59424347 0.81083155
0.056098476 -0.054901518 0.033920392 -0.43630314 0.36923403 0.65749776 0.32556003 0.25760725
0.061351031 -0.05279395 0.033879019 0.28408301 -0.13280229 0.57285082 0.16211663 0.15539217
-0.061791223 -0.044590257 0.034438238 0.18424889 0.061793152 0.52256316 0.57970434 0.59499949
-0.05987791 -0.047117651 0.030392721 0.83609653 0.33383074 0.43047872 0.9309876 0.63987726
0.057333399 -0.049283728 0.034900468 -0.84224683 0.29261005 0.42475224 0.61410743 0.45461842
0.062364221 -0.047789373 0.032736104 -0.18800332 0.058646683 0.59850144 0.27722415 0.21273123
-0.06578324 -0.035205659 0.033373989 0.26587814 0.038265664 0.40245217 0.65765488 0.62857616
0.06462536 -0.035267223 0.032382954 -0.14346252 0.038975928 0.46758604 0.36849248 0.29183811
